# .PCD v0.7 - Point Cloud Data file format
VERSION 0.7
FIELDS x y z normal_x normal_y normal_z
SIZE 4 4 4 4 4 4
TYPE F F F F F F
COUNT 1 1 1 1 1 1
WIDTH 726
HEIGHT 1
VIEWPOINT 0 0 0 1 0 0 0
POINTS 726
DATA ascii
-5.3381004 1.6477764 2.2935543 -0.92116261 -0.050594978 -0.24899361
0.32838821 -4.9928789 1.4938173 -0.38649878 -0.64704919 -0.38066572
-5.4397688 2.8860438 1.4384067 0.72733182 0.54222393 -0.0080262739
-5.047822 -1.1751661 0.49816588 -0.092245363 0.30184051 0.77915549
5.0089655 -5.0816236 1.2776502 0.39269042 -0.68015558 -0.32558525
-4.0198612 0.3535639 5.9807081 -0.5609085 -0.031594943 0.80494308
-1.8871574 4.1210241 0.17296955 0.33983439 0.36639023 0.57735038
-5.5433736 0.18618044 3.9278412 -0.73197395 0.32963455 -0.4127773
-2.4322639 -2.0212035 0.70590264 -0.32149631 -0.72108012 -0.22974114
-1.3702404 -0.64468956 0.49816588 0.38771299 0.57146895 0.62581295
-2.5791297 -2.8428817 0.17296955 0.12180357 -0.22106385 0.87458682
-1.5938165 4.126688 0.49816588 0.52695513 0.42377955 0.57735026
-4.7121367 4.1825519 2.779284 -0.50941426 0.5096482 -0.6577183
-1.1042351 -2.0212038 1.1894876 -0.085388042 -0.75982857 -0.35858619
-4.9195814 2.6161988 3.5456667 -0.36029908 0.59791934 0.63861281
-2.5458815 -2.0212035 0.57556635 -0.3597095 -0.73216295 -0.1873222
-3.8349166 1.4421042 4.8457947 -0.083488807 0.55834848 0.76261878
3.2184319 2.2106528 0.6153959 0.22341384 0.32733661 0.79340351
-3.4335837 0.047884285 0.61539596 -0.48054385 -0.23761684 0.69217628
-2.7539728 1.0242625 5.3371849 -0.40940911 -0.016146045 0.88989997
5.008965 1.4404392 0.2107932 0.98635644 -0.019057445 -0.039032411
-4.1582546 2.8417521 0.33604556 -0.25358692 -0.53061819 0.57735038
3.2034569 3.2567141 5.2633944 0.18354391 0.50502402 0.70507336
0.32838911 4.1712937 0.17358729 -0.66287214 0.70710671 -0.044234902
5.008965 0.39322954 0.19308284 0.98642439 -0.0078748157 -0.031195365
-4.1571598 -1.6155971 0.33604556 -0.092413761 -0.023623765 0.8184042
-0.86319661 -1.6586294 4.1771412 0.016820669 -0.63059253 -0.24023438
-2.0183473 -2.8972371 3.1536975 -0.33102357 -0.40188122 0.76319563
0.94367582 2.5200641 3.8636324 0.27652055 0.32679042 0.87794936
1.2878925 3.3675184 4.2374039 -0.26860189 0.45529121 0.80732226
5.008965 -2.6693571 0.157692 0.89542186 -0.15538299 -0.040217698
-2.2253134 -1.8022445 0.49816591 0.17681435 0.049997449 0.77367383
-1.4904311 -2.3972907 3.254755 -0.28357264 -0.40130281 0.80717146
3.9632249 4.4035907 1.8872434 -0.089776434 0.70709878 -0.48092899
-4.7015619 3.8713355 3.7353287 -0.36041951 0.48605865 0.64307004
5.0465007 0.30296451 3.666738 0.61268377 -0.072405428 -0.34305915
3.2449045 -5.2054691 2.2509735 -0.018024296 -0.71890748 -0.68286186
5.008965 -0.91733408 2.8960009 0.79867482 0.13861793 -0.47777289
5.0089574 4.1985035 2.2786858 0.16323981 0.61824697 -0.58068115
4.2124267 -3.3487821 4.1001339 0.55749035 -0.28899068 0.51432621
-1.8022619 3.2194507 2.5998368 0.63856524 0.59187692 0.15285721
-3.7821653 -2.3466671 0.17296955 -0.064380683 -0.22013772 0.87424105
-4.5630107 -3.7308455 1.300476 -0.45802554 -0.81027961 0
3.2373636 4.4035912 0.47332168 0.051212132 0.70710403 -0.12061626
0.29555145 3.0878644 3.8677549 -0.11036348 0.85804129 0.22118199
1.9196749 -1.9069179 4.9194989 -0.12122748 -0.54110712 0.80500454
-2.5284395 3.838418 2.7793193 -0.078095406 0.43985254 -0.74046272
3.8329239 -2.9081368 4.5374384 0.41615844 -0.37737781 0.5804894
-4.1418028 -0.65161681 1.738794 -0.62576711 -0.62590289 -0.36138833
-0.030323237 -2.2434988 0.17296955 0.5167284 0.0023247302 0.64925665
-3.8089087 -2.0212033 0.85826725 -0.53203869 -0.60241097 -0.27932927
0.3283883 -4.2927251 0.22011919 -0.70710671 -0.65101445 -0.056092542
2.9688907 4.4035912 1.8135737 -0.24495748 0.70710015 -0.46215498
1.4714309 4.4035912 2.2127349 -0.14324239 0.70710313 -0.5638693
4.3067818 -3.6743927 3.9911993 0.56754059 -0.32939985 0.49333337
1.6024925 -0.47576001 4.9210773 -0.12861367 -0.57722473 0.77078485
-0.52303213 -0.48879313 0.13748163 0.51408374 0.624174 0.47909808
4.9547825 -1.9906185 0.85925782 0.31396624 -0.41931802 -0.63654453
-1.5413985 -1.5851824 4.7072597 0.58744419 -0.63125956 -0.36356145
0.23789364 2.5664663 4.487956 0.47336408 0.59344745 0.61367893
5.0089645 2.8871236 0.16925487 0.93610495 0.050125875 -0.043132078
0.39696449 -1.9084964 3.3535585 -0.37047857 -0.39034033 0.83290631
-5.6165485 2.148623 3.8834009 -0.60542434 0.44863877 0.46638471
-1.2744837 3.6376395 0.17296955 0.50381559 0.02697596 0.57735038
-1.7831569 2.8490489 4.6323309 -0.52003348 0.47278374 0.57254982
-5.3270283 -2.1337662 0.53116906 -0.67270792 -0.17159861 0.29828572
-5.5516825 -3.2923505 2.7790074 -0.57732701 -0.57748133 -0.57724231
-5.3139825 -2.9504216 0.27308255 -0.50287664 -0.50287664 0.51154882
-3.743048 -2.6292181 2.7786582 -0.34891427 -0.34828898 -0.84866208
-0.41773564 -1.726795 3.3902874 -0.27081141 -0.40459615 0.85499942
5.008965 -0.34617251 3.6069849 0.73861146 0.077941328 -0.54998779
-1.4085984 -2.0212038 1.2005172 -0.10733151 -0.72914261 -0.37569132
5.008965 -0.04444626 4.1849227 0.69176704 0.046242651 -0.61707795
4.197104 4.5062838 0.38864431 0.43187639 0.70522207 0.36461717
-2.3331563 -0.8985858 4.3815207 -0.37204301 -0.66801083 0.46941069
2.6131854 1.0223439 0.61539596 0.10482328 0.18339646 0.89071798
4.2432103 0.8827281 5.4331627 0.39869422 0.28514412 0.70684242
-5.5166912 3.5579424 3.0262184 -0.56521714 0.6269697 0.49699602
2.0518978 0.52608597 5.9021788 0.026162468 0.53648436 0.81311715
-3.2351549 -3.5477788 0.17296955 -0.15425397 -0.34772998 0.84971327
-0.80475402 -3.8319271 2.7756011 -0.33417502 -0.33370587 -0.86607766
2.8557575 -3.5641794 5.6634383 0.055330195 -0.57554144 0.77398169
3.1313872 -2.5085092 5.3458271 0.15561086 -0.53394991 0.70815659
-2.634619 2.9631188 0.17296953 0.13977745 -0.44664693 0.57735026
-1.0197922 -2.0212038 0.71155298 -0.081857674 -0.81917506 -0.23158014
-3.253248 2.9822242 2.7788444 -0.30656084 0.44694817 -0.78849071
-0.98306149 -3.5956798 0.03405809 0.70710677 0.43165362 0
-1.30424 -3.7017982 2.991066 -0.5786168 -0.39947399 0.66456825
3.0362144 4.4035912 2.5607746 -0.054550979 0.70709956 -0.65256286
0.25250393 -3.5092061 3.1288567 -0.57557684 -0.36247829 0.70819694
0.32838854 -2.2592316 0.49076286 -0.70710659 -0.58204699 -0.12506008
0.84396732 3.9136832 0.61539596 -0.31569919 0.47595859 0.70251048
1.8693216 4.4035935 3.4584374 0.41494843 0.63909584 -0.48113698
5.008965 2.5310411 1.1468143 0.9257735 -0.10368201 -0.21235441
-1.5749575 -0.17138311 0.6153959 -0.39001811 -0.21599032 0.79955256
5.2034745 -4.1623611 2.9569736 0.783566 -0.43254188 0.29616547
-5.165905 -0.65161693 2.7442176 -0.57870454 -0.57924306 -0.57028323
-1.5147998 2.7769744 0.31597567 0.48168382 -0.59240568 0.5103597
0.35989466 -0.96221697 0.48316714 0.58860195 0.41888395 0.52728641
-5.0589037 -2.0619507 2.1237769 0.47070694 0.24214308 0.52720439
5.008965 -4.354022 2.695133 0.21998583 -0.46345952 -0.64176422
1.5170069 2.1496658 4.4846177 0.18983148 0.4293485 0.84047812
3.7247231 3.8336861 0.61539602 0.32994759 0.53639513 0.67294824
-0.93643355 -3.4858494 0.33604556 0.37840849 -0.32297617 0.81332278
5.008965 -4.0800505 0.43207404 0.69840562 -0.46226943 -0.11012011
-5.1686826 3.1832843 1.6583472 -0.0091336146 0.30659708 0.89319229
-1.0067459 3.245594 0.17296955 0.57547534 -0.24830359 0.57735032
5.008965 -3.9547601 1.9743223 0.36745825 -0.41089329 -0.48453012
-0.83827716 -3.6347737 0.21678111 0.58117604 -0.58117414 0.28084192
4.2667184 -5.1509256 0.61539596 -0.46003109 -0.4412052 0.65729719
-5.593277 0.17499229 4.1249127 -0.59933174 -0.39497331 0.51785159
5.0089655 -1.2506039 1.2038953 0.92205304 0.10881229 -0.22298597
2.7626505 4.4035912 0.73848283 -0.15979026 0.70710325 -0.18818815
5.008965 2.3555987 2.0409634 0.86790085 -0.18452114 -0.37792292
1.5579789 2.7387571 0.61539596 1.8547023e-08 0.27035072 0.88801706
5.1170444 -0.70201796 4.377358 0.82785499 0.11790795 -0.49899441
-3.2951715 -2.6533854 0.17296955 0.010969251 -0.24427512 0.88322747
1.9153554 4.4035931 3.4368141 0.4103837 0.64051431 -0.48310041
-0.10114911 -2.1621385 3.3022881 -0.36727059 -0.3902106 0.81557614
0.32838911 3.6230588 1.0413105 -0.44175354 0.70710623 -0.26535508
1.1143833 4.4035912 1.3266069 -0.36905155 0.70710438 -0.33805826
-5.3284636 0.75283611 1.1673007 -0.44317377 0.6075058 -0.30899209
4.8809414 -2.7197926 0.61539596 0.32991219 -0.14558017 0.66315889
3.2717183 -2.0381746 5.1841226 0.20678206 -0.51167148 0.67551041
-5.6100779 -1.6942273 2.8843174 -0.45557076 -0.65612143 0.1693693
-0.71650541 3.0941005 0.23798117 -0.025857745 0.99181253 -0.025858395
0.15422589 -1.3475559 4.5874581 0.47505796 -0.62693334 0.58482593
1.491496 -0.28446174 0.61539596 -0.087344594 -0.087344415 0.97234464
-0.30307123 -0.48879316 0.0315588 0.61592418 0.69860405 0.12051149
-4.9668574 -1.5615598 2.778728 -0.57705331 -0.57755476 -0.57744241
-5.3381 2.2438874 0.94538355 -0.96750391 -0.015021555 -0.10263318
3.4186537 -4.869988 1.9974041 -0.26249242 -0.66684198 -0.60289705
-2.5834768 -1.1799911 4.0221224 -0.18065614 -0.62918663 0.60979271
-1.5216045 1.0119592 0.61539596 -0.35658801 0.038636148 0.83920479
0.32838857 -2.1102304 1.575026 -0.65041173 -0.55801022 -0.34466514
-3.8724587 -2.8108549 3.1711586 -0.2836006 -0.48293138 0.73155046
-0.47898853 -2.021204 0.11149273 -0.077910483 -0.94470793 -0.036286086
-1.1185499 -2.021204 0.31325015 -0.15662834 -0.87044394 -0.10194951
4.1409316 -0.60763174 4.7204733 0.46159464 -0.32885805 0.5873071
-2.4484198 4.2812862 2.7793193 0.1742315 0.52213788 -0.642856
5.285326 -1.0316494 4.011982 0.85202527 0.068947524 -0.24565363
-2.8412366 -0.71427417 0.49816588 0.22415981 0.55870891 0.66853577
5.0089655 1.0244318 2.9806657 0.78449452 -0.068838529 -0.45649022
-3.2875528 2.2744784 4.5635509 -0.044793602 0.45927513 0.85099125
2.1672459 -1.2488754 5.1879654 -0.083227433 -0.57852936 0.78754795
-5.3381004 2.1431863 2.8360713 -0.85556841 -0.12323616 -0.29757708
-2.9289966 -0.0034102555 5.5247974 -0.44406521 -0.27316698 0.77072805
-3.6718447 2.8375351 1.4096997 -0.061323147 0.83765924 -0.34487033
-4.3486824 2.8375359 1.6858151 -0.13953811 0.76190591 -0.43129715
-3.5367062 -3.1564012 0.49816588 -0.12205025 -0.3578366 0.83772415
1.3150241 3.427835 4.2671089 -0.26693946 0.46206376 0.79899991
0.21825948 -2.655426 0.49816591 0.55537474 -0.1941833 0.60341638
-2.3001881 4.2110014 3.4241652 0.42300382 0.55074823 0.53043038
-2.0224547 2.8375285 0.66980702 -0.6559481 0.6840747 -0.1391415
2.9047461 -4.8699875 1.169076 -0.064568549 -0.82502091 -0.37289178
5.109066 3.7823217 0.53464258 0.59437704 0.48978361 0.50158942
5.0089645 1.7065926 4.0386004 0.71304059 -0.13800986 -0.63979357
-4.8130503 1.7624099 4.4094863 -0.36696589 0.47022873 0.62226236
4.3603239 2.3433704 0.61539596 0.33641562 0.38471106 0.70828426
-4.4444056 4.2768893 0.87918389 -0.55285132 0.77100158 0
3.4790349 0.46059668 0.61539596 0.12162145 0.19253033 0.84424669
-3.75264 3.5126061 2.7789624 -0.43676183 0.43707192 -0.7438907
2.7368751 4.1130686 5.8013878 0.012928613 0.58210415 0.8113032
-2.0759995 3.1022358 0.56026793 -0.54176557 0.5417794 0.58161896
-3.4868975 -3.8325152 2.2894735 0.30223992 -0.52913147 0.39690971
-5.5508957 4.3825703 2.9964614 -0.63164037 0.63266408 0.4161388
1.7435831 -0.45831522 0.61539596 -0.057417762 -0.057417642 0.98182017
0.32838848 -3.1878726 0.0089345686 -0.70710683 -0.70483005 -0.0022768434
0.32838842 -2.4280794 1.4190589 -0.70710623 -0.34549183 -0.36161572
3.4372327 4.4035907 1.4090586 -0.12684858 0.70710069 -0.3590723
-4.7329087 -1.5517936 0.49816588 -0.13527623 0.043496802 0.82111222
-0.4795298 -2.6854742 3.1965024 -0.41716993 -0.38209262 0.77445447
-3.2169187 4.542747 2.7793193 0.089538977 0.57076967 -0.58518219
-0.3583557 3.0650487 3.8318276 0.86229843 0.24521628 0.0039621368
3.7812011 2.701726 4.5973644 0.39596984 0.39771715 0.5828802
-1.820894 -2.3349602 3.2673545 -0.24494503 -0.40680951 0.81517148
4.2688723 0.28795749 5.8950148 0.3484624 -0.26594236 0.78460747
-4.9503884 3.3144858 0.49816588 -0.46942008 -0.17865933 0.57735026
2.0597594 -0.79517084 5.0714068 -0.10099822 -0.57443058 0.78557539
5.0099444 -0.20893888 5.0085168 0.63354033 0.065520883 -0.74173701
-2.402683 -0.55959785 0.33604556 0.29197028 0.62282717 0.64373583
-3.8727903 3.0065889 0.89133877 -0.32186002 0.82500774 0.13111599
0.70058125 4.1531615 3.6122165 -0.50673705 0.56505328 0.50916946
-4.1971331 -1.4524465 1.3631252 -0.64448845 -0.21169256 0.27861866
-4.1971335 -1.6868255 0.97473037 -0.67177939 -0.53281593 0.15718795
1.9121683 -5.3859458 4.780273 -0.0054036453 -0.85524219 -0.2651903
4.2506294 1.3153901 4.865078 0.46948195 0.29758328 0.61237156
-5.4211612 2.6868072 0.030144064 -0.70075083 0.61235243 0.028280463
5.008965 -0.39522225 0.22939859 0.98514545 0.020736571 -0.042494874
2.7239795 4.4035912 0.9721151 -0.23101017 0.70710248 -0.24772528
-3.2798347 2.3757994 4.5562391 -0.045819562 0.4359974 0.86324811
0.72098303 0.12316716 5.6863689 -0.043762919 -0.72492188 0.65941381
5.1090651 0.14366102 0.32559109 0.63845563 0.0081709027 0.30546209
-2.7094803 3.3459656 0.49816588 0.19577797 -0.15530965 0.5773502
4.1748362 2.4150815 0.61539596 0.33976236 0.36865598 0.72408992
-2.4256818 0.88239992 0.6153959 -0.43145329 0.073700279 0.75040472
-0.39957789 -0.83893228 5.2460623 0.1820498 -0.59156895 0.7470153
3.1475556 -2.213012 5.3271966 0.16109119 -0.53534794 0.70127809
0.89878666 2.3850713 0.61539596 -0.12290177 0.11958788 0.96108645
2.0512514 4.4035931 3.4219136 0.39049944 0.64292395 -0.49459106
4.4290762 -2.764719 0.61539596 -0.16021055 0.1055825 0.83312744
2.0981376 2.1438913 5.114152 0.10281296 0.524625 0.80933297
3.2735665 -0.84896338 5.1819925 0.20542002 -0.53081548 0.65979832
2.8338444 4.1179428 0.61539596 0.17909348 0.61110651 0.68994892
-1.5071423 3.47334 0.17296955 0.44154489 -0.088389054 0.57735038
2.4995351 -0.47592461 0.61539596 0.0028371513 0.039193388 0.96371442
0.65625304 0.74910724 5.618639 0.053832237 0.38077241 0.90884775
-1.2382528 3.0941002 1.552722 0.27205265 0.54654634 -0.0041497573
0.07795807 4.5700827 2.8650718 -0.65105689 0.60812581 -0.12359807
-4.6683941 3.7856574 3.7641821 -0.34529209 0.48035073 0.6577934
-1.244137 -2.3258157 0.49816588 0.3286525 0.016255245 0.78623545
-2.9796753 0.82135606 5.5254374 -0.29963362 -0.28274056 0.79799318
-4.4259939 2.7940719 0.61539596 -0.5033769 0.47786725 0.66509259
-0.97149384 3.1664119 2.3772774 -0.24268346 0.62082779 -0.30205941
4.2077312 -5.1212254 0.47002894 -0.55682153 -0.44110906 0.53897226
-3.6473277 4.0368986 3.6510587 -0.020670127 0.50399524 0.6051271
3.3406994 -2.1967092 0.61539596 -0.15713708 0.039255966 0.93024027
-5.3674664 2.2493372 0.85925788 -0.53994614 0.36635843 -0.58575672
-4.2626534 -2.8112264 2.778954 -0.39341772 -0.39288309 -0.79581076
3.6666751 -4.6794643 4.7287092 0.32096285 -0.47876728 0.62428832
2.1361272 4.5720153 5.1602831 -0.15077916 0.58351743 0.70293999
2.290596 -5.2054687 3.9766636 -0.005616561 -0.64055324 -0.76275218
-5.2393303 -3.5871873 2.3366022 -0.44492495 0.54574895 0.35985035
3.4409964 -2.9829252 0.61539596 -0.23649652 0.008976697 0.94215441
5.0609341 -2.1628313 1.3607453 0.57735032 -0.57602102 -0.18055397
1.3239309 -5.2861605 4.2854753 -0.37215042 -0.58458501 0.56125736
5.0089645 -0.90843463 1.4875456 0.90369123 0.13444488 -0.27551413
0.95293128 -5.2054687 2.711144 -0.00033315874 -0.70315945 -0.71040726
2.9624884 -1.1903126 5.5404515 0.090779416 -0.5917232 0.7231077
-1.0974786 -2.4937875 2.7761033 -0.1597451 -0.49257949 -0.81141639
0.04108429 -3.8315482 0.77782863 -0.66314328 -0.61999315 0.24867961
3.1016159 4.4035912 2.4161692 -0.091400154 0.70709956 -0.61571348
5.2426066 -3.1907041 2.7748461 0.51668417 -0.015556291 -0.67760754
-0.76091218 3.0941002 1.793726 7.778811e-07 1 2.6905445e-07
1.2590761 4.0047269 0.61539596 -0.16379111 0.53471094 0.72645652
-2.0774751 2.5631554 4.2851391 -0.66725445 0.46348983 0.4664824
-1.6860042 -3.742938 2.9827499 -0.58637279 -0.41836333 0.6495862
-4.0413394 -2.1093323 0.17296955 -0.10446849 -0.19065645 0.86326534
-4.4749546 3.078943 0.33604556 -0.34230667 -0.35950229 0.57735032
0.35989463 -0.93778348 0.42778248 0.63015002 0.46127161 0.34241894
-2.3318577 -2.0212035 1.8407094 -0.17397772 -0.57204282 -0.58216465
5.0609341 -0.67365468 1.730615 0.57735032 -0.4777222 0.11210163
0.29555142 2.8294849 3.5920644 0.21511035 0.5704934 0.50827038
-2.5729642 2.9933405 1.2214153 0.66097069 0.62541395 0.24083824
0.096302859 1.9102522 0.61539596 -0.31957209 0.12601238 0.88311118
-5.3323936 -3.742177 1.6111271 -0.65234387 -0.094712943 -0.096355334
-1.0804508 -1.6586294 3.9132855 -0.27495718 -0.59919947 -0.4390074
-5.4211607 1.6300721 0.39987245 -0.6227935 0.20818394 0.3751511
-0.27595007 -2.9160633 3.1498921 -0.47138554 -0.37403914 0.75327659
5.0089655 -4.8015366 0.74481308 0.55370831 -0.61922383 -0.189806
1.6937172 -5.2054682 4.315937 -0.0062056482 -0.63357258 -0.76858866
-0.22978282 3.0941002 0.89972991 -0.097763062 0.9690457 -0.097763427
-1.192086 2.8705695 0.22365314 0.66166371 -0.59414172 0.20219857
-0.6842795 -0.35433644 5.5846405 0.062558234 -0.63247031 0.75242776
5.008965 1.0449656 4.0504689 0.70440328 -0.069175832 -0.60873926
-3.4022973 4.1639853 1.4380493 0.66313809 -0.51697135 -0.33048353
3.7202303 1.3609962 4.806006 0.35371378 0.43590176 0.59494567
4.2006383 -1.110716 4.113718 0.54927188 -0.32828364 0.48764697
-0.67640775 3.0941005 1.2954115 8.5786343e-07 1 3.0247895e-07
-3.1601217 -1.1144245 0.49816585 0.11194725 0.29917419 0.72805721
3.0762455 -0.75206864 5.4093676 0.13216256 -0.57459962 0.69590759
-1.385957 -3.0545218 0.33604556 0.30852604 -0.16356185 0.85317504
0.16522709 1.135726 0.61539596 -0.31117851 -0.002716586 0.89306742
2.9152107 -1.8868016 0.61539596 -0.13437313 0.010006951 0.96251649
-0.37363806 3.1740031 5.088747 -0.295571 0.72206354 -0.43972489
-4.2632389 0.11294439 4.0363445 -0.56519467 -0.48754442 0.6265856
-0.78401476 3.1664119 4.2784462 0.056640416 0.68165416 0.14942884
-5.1173024 -2.1794086 0.33604559 -0.25984845 -0.31458759 0.88902354
-1.0542649 -3.6878839 2.7758865 -0.33097756 -0.33048263 -0.86988401
-4.4004812 -2.9442737 0.49816588 -0.33177018 -0.33176994 0.86864287
-4.1042299 -1.2057241 0.73022783 -0.67294729 -0.67300415 -0.15176935
-3.5679574 -2.7708635 0.33604556 -0.030392081 -0.2991567 0.90365577
-5.1954279 -0.65161657 0.65705407 -0.6763646 -0.67646492 -0.13655101
-0.42029005 -2.9923127 2.7753787 -0.18965001 -0.45232296 -0.83101416
-3.8363183 4.3110461 0.17296955 -0.18185569 0.49981633 0.57735026
-3.9545596 3.3484845 0.33604556 -0.19652413 -0.16504809 0.57735032
-4.7243924 4.4460893 2.7793193 -0.39233151 0.55290574 -0.6063962
-2.950438 -0.013605867 5.5117764 -0.45065475 -0.26995686 0.77038074
-1.90689 -2.0212035 1.7779523 -0.14333269 -0.61988485 -0.54621571
-4.8210716 -0.65161693 2.6375513 -0.58370531 -0.58411407 -0.54814041
-4.2812319 -2.9052851 0.49816585 -0.30825239 -0.3082521 0.89653826
-3.320066 -1.8784199 0.33604556 0.0082746372 -0.070444614 0.81851161
-2.9415364 2.9495361 0.50262856 -0.39666 0.39666575 0.71407992
-3.5930042 -3.8325157 2.3501313 -0.36103681 -0.55051935 0.34921181
5.0089641 2.9579184 2.3586254 0.75355047 -0.10372354 -0.45884296
0.24221659 -2.262682 0.1530626 -0.60622674 -0.60622549 0.22497772
5.1528363 0.41836852 6.0414371 0.53791773 0.031479005 0.8218478
1.0511768 0.62808836 5.7728195 0.029063597 0.44039619 0.87912363
-4.2704601 -2.9279091 3.1474972 -0.31373793 -0.50539428 0.7052756
4.1621866 -1.7526629 4.1580262 0.53613359 -0.32595816 0.50322014
-5.3381004 2.2298627 3.3395863 -0.81674349 -0.19800436 -0.42214108
-2.868808 -2.8918395 0.17296955 0.076943353 -0.25865504 0.8885814
4.0316811 3.0485578 0.61539596 0.3739149 0.41380128 0.70975387
0.32838911 3.9667668 0.30168751 -0.63022888 0.70710665 -0.076878428
-5.3323936 -2.0976794 0.32032382 -0.70710683 -0.022876918 0
-3.2460513 -1.5152259 3.5939753 -0.038512845 -0.57836497 0.73611468
0.60144484 -4.4769897 3.5081584 -0.53970706 -0.44125101 0.62716705
-1.4034464 -0.96029776 5.0838971 -0.23928072 -0.57769287 0.73990905
5.008965 0.080235496 1.5528417 0.88685817 0.028109675 -0.23418334
0.32838821 -4.5191126 1.0854727 -0.6243974 -0.51320779 -0.27660853
-1.3741107 2.7769742 0.26741275 0.56638432 -0.62883627 0.34826273
-5.3825417 1.5087847 2.0478868 -0.57735056 -0.57045215 0.36313921
-1.7000654 2.7769744 0.43288809 0.52597094 -0.62632 0.3594608
-5.4211607 1.7685449 0.064838916 -0.69343549 0.26627791 0.06083037
0.017829686 -0.56959128 0.17296953 0.52720708 0.53405136 0.59519315
-5.0988283 -1.7254941 2.7786524 -0.57705402 -0.57758707 -0.57740945
-3.5433397 2.9495358 0.5366081 -0.43911952 0.43912387 0.68709791
-5.3825417 0.040487096 0.94696486 -0.57735038 -0.315696 -0.50795311
-1.5692188 2.7769744 0.30711579 0.46965918 -0.59905213 0.48078656
-1.4334643 -2.5043678 0.49816588 0.29930326 -0.043367773 0.80843198
0.097251922 -1.2813035 3.8927312 0.32269219 -0.81353235 0.07859844
2.4498186 -4.869988 0.59343213 0.093752667 -0.89747488 -0.17557842
-5.4211607 0.38846168 0.52016199 -0.59743041 -0.20732516 0.48800397
-4.7423735 2.9333439 0.61539596 -0.52222043 0.51956493 0.64274156
5.008965 1.3023123 3.1686115 0.77363497 -0.097424194 -0.49680656
5.2853184 -4.8944416 2.8597178 0.75223213 -0.55356532 0.24915111
-1.918841 -0.99644876 0.17296955 0.24940467 0.30820081 0.69235551
-1.3593178 3.0941002 3.1526456 3.5826491e-07 1 1.2725302e-07
-0.38921672 -2.021204 2.3545427 -0.034000207 -0.70625871 -0.62184149
-2.3590539 3.685159 2.7793193 -0.10896467 0.41136426 -0.7742523
0.71349078 -4.7505822 0.61539596 -0.053100169 -0.26110342 0.76305324
0.3283883 -4.2593412 0.37918958 -0.70710671 -0.610479 -0.096628092
4.3180671 4.4035907 1.8742381 0.02075173 0.70709866 -0.47761467
-2.1257782 3.3189631 2.7793195 -0.23183466 0.34330562 -0.85497856
-0.31194651 -0.53270841 0.23908591 0.58336461 0.66508198 0.26870647
-2.0896683 2.8375351 2.7105753 -0.53670979 0.59372813 -0.56899482
3.7142525 0.90655947 0.61539596 0.17308283 0.24087587 0.80950612
-0.75818837 -3.6082592 3.0099735 -0.55720711 -0.37115994 0.69098234
-1.1415733 -3.1650078 0.49816588 0.34438831 -0.17770314 0.85367596
2.8214645 -5.2729468 5.7029533 0.045445304 -0.55511713 0.80251312
-1.503072 -3.6199179 0.49816588 0.45127282 -0.46445239 0.71126306
-2.8691967 4.4214678 0.076689832 0.1492192 0.64957643 0.25598088
-0.85307133 3.0941002 2.7164805 6.1105965e-07 1 2.0251109e-07
1.0683243 -2.3127277 3.9962912 -0.25509867 -0.44293147 0.84104502
-4.8543034 -2.5191798 2.7793195 -0.53013682 -0.53002185 -0.63342732
-2.9586794 -2.0212033 2.2931504 -0.21922778 -0.46350619 -0.72687912
2.8414652 -5.2054687 4.9851398 -0.042806584 -0.59532541 -0.77740496
-3.2152848 4.3337302 0.35963839 0.081726521 0.68126965 0.11496229
-5.4211607 -0.11086293 0.15183944 -0.67509139 -0.43866134 0.14245224
3.0944822 4.4035912 0.71421605 -0.053345069 0.70710325 -0.18200405
-2.5399237 -2.0212035 0.54127616 -0.36370176 -0.73758936 -0.1761622
-3.5578032 3.1531138 2.7786398 -0.42193624 0.42236981 -0.76142627
-5.3507318 4.698679 2.8529098 -0.12569894 0.043000992 -0.97580385
0.53870451 0.87459171 5.4583983 0.075889133 0.35763469 0.916677
-1.9387616 2.7769744 0.2354731 0.3966139 -0.65279651 0.24165209
-1.536814 1.0631602 5.3619785 -0.64159518 0.014609247 0.75230879
2.6424019 -4.8756857 2.1338532 0.032464348 -0.69981062 -0.69981056
0.78810281 -1.3548956 3.79863 -0.28714281 -0.44290283 0.830446
-4.2801156 -3.4967082 0.49816588 -0.41595224 -0.41595197 0.76879114
5.0089655 0.45790577 4.9716516 0.62835854 -0.0065687634 -0.70991957
-1.4197024 1.6928113 5.0645652 -0.396889 0.35173661 0.74109912
-3.3637128 4.3659196 3.2222736 0.074748918 0.58990502 0.46886584
-3.6220319 -3.6035697 2.3510303 -0.55083627 0.4563989 0.34850481
0.64407861 4.4035912 1.1927905 -0.40315199 0.70710546 -0.3039571
-1.8410275 4.0784297 0.23436116 0.29779929 -0.70710683 0
-1.628105 3.0622792 0.61539596 -0.52424192 0.50967968 0.64033771
4.7603555 2.995007 3.4689202 0.75882363 0.18689318 0.39860553
-0.65357643 -3.7308459 1.0287657 -1.8547077e-07 -1 0
-4.4473586 4.1754808 2.779319 -0.45315322 0.50260562 -0.66605687
2.2950158 3.367173 0.61539596 0.077096947 0.52624977 0.75751597
1.5400267 -3.3936489 4.507925 -0.18000449 -0.47605705 0.83672595
5.008965 -0.23769385 2.4791429 0.82153726 0.064202748 -0.38307709
2.5011065 4.4035912 0.35004234 -0.13982984 0.7071048 -0.089201055
-5.6371303 0.36538982 4.18365 -0.8671428 0.26106691 -0.27949375
4.0340133 2.5997581 4.3059573 0.48924822 0.34745431 0.53201556
-1.5564766 -2.6280465 0.33604556 0.28211147 -0.080890507 0.82239878
-1.7788475 -3.0083385 0.49816591 0.24573009 -0.19429906 0.86462092
-2.3291161 2.8375349 2.633111 -0.4569948 0.61980712 -0.56720209
2.1027122 -4.869988 0.018759783 0.2531971 -0.89350903 -0.0050757779
4.8180628 -0.63919723 4.6775265 0.62379748 -0.15551206 0.58951277
-1.2100402 3.2391427 5.3139024 -0.19116975 0.57847524 0.71047932
-4.9368734 -2.1088374 0.33604556 -0.24293286 -0.27255717 0.89375466
5.0089655 -4.7437825 2.2031417 0.18728352 -0.60666209 -0.56143266
0.57056975 -1.4298657 0.61539596 -0.29426768 -0.29426709 0.86690277
-2.1720243 -0.52188039 0.61539602 -0.41909871 -0.35520625 0.76505899
-2.2046976 2.8375347 2.3199518 -0.51874965 0.6319527 -0.4819262
2.8834698 4.312788 3.5681314 0.16009459 0.18351467 0.9113645
1.0946141 0.080124795 5.6312404 -0.044859804 -0.7021696 0.68269598
-4.1042299 -1.8300645 0.3101581 -0.69259793 -0.69262189 -0.064462587
2.6557069 -5.2054687 5.3272295 -0.010335071 -0.58464062 -0.80950069
-3.4629409 0.27030483 5.8743734 -0.47803259 -0.14015763 0.80173117
0.32838821 -3.8671517 2.1798053 -0.52971339 -0.32902554 -0.55547476
2.9145386 4.4035931 4.8959327 0.058744378 0.60123169 -0.75012714
-0.74909478 -3.7308459 0.73143089 -1.8547077e-07 -1 0
-4.0271001 3.4682269 4.3220677 -0.14523914 0.36963758 0.82302207
-5.4780607 4.4963856 3.0522492 -0.61882311 0.62156433 0.4196592
4.5630703 -4.3912296 3.695271 0.58987981 -0.45400995 0.43280166
-2.0920877 -2.0292945 0.17296955 0.19735414 0.0063064396 0.78994024
0.32838821 -3.8731532 2.4532185 -0.45834488 -0.33072096 -0.62514788
5.008965 2.2164843 2.2918601 0.85017312 -0.19397865 -0.41809019
-0.79322487 -2.3064148 0.33604556 0.4007374 0.06362465 0.76859856
-4.1042295 -1.5780007 1.3048997 -0.60591084 -0.60586667 -0.31890309
5.0089607 3.5432603 1.5371876 0.51254213 0.3140448 -0.37605208
1.4247029 3.185955 4.3849087 0.20603345 0.38991284 0.86457133
-2.4058232 3.4232926 3.7282522 0.3129651 0.46583453 0.75261968
-1.9788023 3.5928464 3.3237181 0.43662307 0.54093647 0.6556741
-3.5957093 3.0065901 0.69015777 -0.11037233 0.93260086 0.068217359
1.1753265 -1.1740211 4.1123247 -0.240145 -0.47314203 0.82246429
-0.60703427 3.0941002 2.4497893 6.3473988e-07 1 2.1572271e-07
-5.2884054 2.4243429 1.4489036 -0.34378138 0.62984359 -0.058438241
1.587709 -1.1362544 4.5595131 -0.17502634 -0.51808774 0.80705822
-5.1512661 2.8375356 1.9071568 -0.53035063 0.63727748 -0.416538
-1.9460307 3.0679536 0.33604556 0.36614168 -0.36743015 0.57735044
-5.3381 1.0218323 1.1711929 -0.95974213 0.1271465 -0.12714761
-3.1551733 1.9615738 4.4381428 -0.080899365 0.51607955 0.81328672
-5.5075903 2.835043 1.5778002 -0.59150535 0.046834737 -0.022089809
2.8497353 4.4035931 3.9742837 0.18985964 0.63382977 -0.63657176
0.95840853 2.2808719 3.8795271 0.27376488 0.33481678 0.87273932
-1.0260072 2.8808672 5.5327616 -0.09941113 0.52873409 0.79789907
-3.4952292 2.0503633 4.7602911 0.0053962097 0.52916735 0.82369971
0.30638391 -2.0212042 1.8216949 -0.57122421 -0.63333315 -0.39042315
0.077957161 -4.866745 2.9019752 -0.60858643 -0.51947522 0.02277036
-4.799859 3.1875417 0.49816588 -0.42473641 -0.27281812 0.57735026
-0.12218876 -2.021204 1.3487766 -0.014612755 -0.83827758 -0.35304689
-5.1605339 3.9090142 2.778759 -0.5431757 0.54365766 -0.61754572
4.2319651 -4.9884167 0.74056023 -0.66207451 -0.66207439 -0.20037119
-4.6215272 3.5486336 3.8049538 -0.31591204 0.47231531 0.68894136
-2.1435375 3.81271 0.17296955 0.2712146 0.14990373 0.57735038
0.0451684 -1.25093 4.7171531 0.39941877 -0.5923835 0.65658432
-3.5257318 4.1393037 0.9670971 -0.071580827 -0.64271283 0.082651854
0.33703178 -5.2054687 0.22210838 -0.63172227 -0.70710683 -0.056599345
-0.35544038 0.34355769 5.9679298 -0.058166429 0.036910146 0.86146486
-5.4967732 -0.039846905 3.8182454 -0.59836566 -0.5174132 0.43902308
-4.9969435 0.12902623 0.61539596 -0.55668843 -0.28826475 0.60185802
0.32838863 -2.3569252 0.048789326 -0.70710683 -0.69467396 -0.012432951
-5.2385125 -2.2786579 0.13384433 -0.30518007 -0.70710677 0
2.4808846 2.002234 5.5287404 0.045183521 0.59061211 0.78627086
-3.0617507 3.6826682 4.1126962 0.16922855 0.4124659 0.74989814
3.6090026 -5.2299356 4.7948947 0.26735818 -0.56800342 0.63275915
0.32838821 -4.0707107 1.4024854 -0.67028952 -0.38653198 -0.35739222
-4.5596647 3.7870524 0.33604556 -0.36603728 0.15134634 0.57735038
0.32838911 4.2289886 2.1554222 -0.15784855 0.70710558 -0.54926193
-3.1726077 -2.021203 1.3628834 -0.35088184 -0.57325757 -0.44356042
5.0384908 -0.0082775131 0.85925758 0.5216642 0.34392193 -0.58986545
-0.021512598 3.0941002 0.70634651 -0.076750495 0.97569883 -0.076750703
0.72831023 3.5877728 3.6372297 -0.44442803 0.49510896 0.64407319
2.6290116 1.8631322 5.6891675 0.02268653 0.61812806 0.775787
1.028266 -4.8201656 3.9673722 -0.43538347 -0.49924022 0.62357283
-3.5087373 4.3916159 0.66637796 0.029574476 0.64271396 0.346452
-2.711318 -3.1467569 0.17296955 0.10128403 -0.30142087 0.90450263
5.1090651 -2.9663346 0.32376134 0.63884145 -0.36562902 0.30374545
0.50767004 0.019304663 0.61539602 -0.22895095 -0.21107978 0.92750871
2.9315219 0.30934072 0.61539596 0.093844965 0.12622207 0.90083617
5.1090655 -2.0641236 0.37954825 0.62707877 -0.24743932 0.35608345
3.04351 2.3226438 0.61539596 0.19444884 0.34992367 0.79325384
4.4709802 4.4035907 0.78134489 0.34545147 0.70710248 -0.19910997
-4.1042299 -0.95268536 0.4951722 -0.68394303 -0.6839816 -0.10291578
0.90828443 -3.3320136 3.8303757 -0.36432296 -0.42088592 0.78129852
1.6629798 3.8260252 0.61539596 3.5958269e-08 0.52414578 0.78289163
0.75078535 -1.048766 4.1896195 -0.23711249 -0.50222933 0.79386961
3.8831096 2.8904145 4.4799614 0.43409857 0.37206256 0.56662607
1.830265 1.2794546 0.61539596 1.0717957e-08 0.15623033 0.9352873
-3.7121 -3.6763415 0.12136365 -0.47797632 -0.47797641 0.56888711
3.8439155 -0.34566274 5.0647993 0.35087535 -0.39659315 0.6405254
-2.2354343 4.4764843 3.0781841 0.4460994 0.61989045 0.42083853
-4.3488746 -2.7903066 3.1753123 -0.27190503 -0.50381887 0.72318256
-1.6950564 -3.8991961 0.17296956 0.49903256 -0.54198527 0.61930311
-3.4642141 -0.79129505 4.5185471 -0.24318184 -0.38018084 0.75119078
-5.4968824 3.2447491 3.0434508 -0.53809589 0.62362909 0.5291611
3.3927467 2.2961547 0.61539596 0.25457588 0.33260766 0.78131568
4.3686109 4.0389609 3.920279 0.53964883 0.43943179 0.47520959
-4.0019608 -0.87661099 0.78142124 -0.11401241 0.90369254 0.11849441
1.0680252 1.3856169 0.61539596 -0.075639687 -0.05213429 0.97605067
2.1185422 -5.1452546 3.1593018 -0.65538949 -0.32391644 -0.55632621
-2.0239782 4.2768888 1.2906936 -0.039670501 0.98356789 0
0.003238827 0.56250334 5.8566093 0.03751611 0.39465368 0.88290614
-1.186837 0.66457701 5.7253194 -0.061723195 0.4368782 0.76663721
-2.7384386 -2.0212033 2.1109552 -0.20332548 -0.50409222 -0.6701147
-4.6811495 -0.65161675 1.753001 -0.62509847 -0.62527424 -0.36433288
4.194119 -2.3049603 0.61539596 -0.14953437 0.12468001 0.85145032
5.1090655 -1.0458177 0.12962459 0.67977524 -0.12235811 0.12161082
-2.4091842 -2.0212035 0.63103306 -0.32851022 -0.73363352 -0.20537427
-1.1654001 3.1849763 5.3669901 -0.17763628 0.54845548 0.73153019
-2.0933611 -2.0212035 0.80910569 -0.24914892 -0.72973847 -0.26332936
-0.71462452 0.84620631 5.620728 0.24459405 0.42311513 0.74423492
-2.1368446 2.8375311 1.3069834 -0.5884397 0.66996771 -0.27150217
-5.07092 -3.1735129 2.7793195 -0.49346888 -0.49317417 -0.67698288
0.97910345 -5.1530929 0.70066786 0.57392627 -0.77193367 -0.09900368
-5.3381004 2.1636891 2.1716719 -0.9253521 -0.13324529 -0.23576169
-5.2540102 -3.8360076 0.63268089 -0.51654989 -0.64271396 0.37601209
1.4855489 -1.9567676 4.4487309 -0.18976226 -0.4936257 0.82135338
1.6939312 -0.25906366 5.1977925 -0.091299757 -0.61460912 0.75069714
-2.4091246 -2.0212035 2.1099513 -0.17958467 -0.53614056 -0.65439212
-4.5285759 2.903935 0.17296955 -0.36713734 -0.48820356 0.57735038
4.7354856 4.4531713 3.4970493 0.58731145 0.58015263 0.39020765
1.7679883 -4.6387277 4.7616019 -0.21450545 -0.49019954 0.77780575
5.1090655 3.386394 0.59350181 0.58196652 0.44062904 0.55680978
-2.7243667 -3.3903294 2.777385 -0.38033512 -0.37986711 -0.81130314
4.5602727 2.9504027 0.61539596 0.40381017 0.43768892 0.67251307
1.5631959 1.8039148 4.5345592 0.18212126 0.44502595 0.83161747
0.37167725 3.3943758 0.6153959 -0.34547779 0.34547627 0.82360995
-0.51536572 3.2418351 5.257802 -0.20461799 0.81968844 -0.37832606
-3.7825263 4.2716236 2.779319 -0.21291597 0.52042776 -0.64490598
-0.1028226 -4.1611509 0.03466437 0.23080277 -0.44827414 -0.70384228
1.4097953 4.4035912 0.91036654 -0.47512016 0.70710403 -0.23198919
3.7141144 1.5083786 4.6743588 0.3684116 0.43970045 0.57380974
0.17687365 -5.1931415 3.0513625 -0.68532944 -0.59284985 0.35358718
-0.0048938692 -0.11770853 5.3788223 0.16789162 -0.29196346 0.7811172
5.008965 -0.90543342 2.9695368 0.79303694 0.13745664 -0.48767638
-4.1742725 3.8439918 0.33604556 -0.2580741 0.19242385 0.57735038
-5.6101141 4.327714 2.8926401 -0.6176815 0.62230694 0.10422842
-3.3791924 4.6214375 2.9260128 -0.1257472 -0.54841721 -0.56725526
3.5088284 -1.9057906 0.6153959 -0.12324273 0.072360896 0.90617067
-5.2352495 -0.72521192 0.059893172 -0.69447827 -0.69447827 0.05619039
0.045251664 -2.0212042 0.23922104 -0.0023905565 -0.97158754 -0.062485754
0.21829702 -3.5836954 1.1730831 0.39167994 0.64271241 -0.098044083
1.0414257 2.5101025 0.61539596 -0.13847949 0.13847888 0.90838528
-1.0356753 2.7769744 0.09044233 0.62748027 -0.63925987 0.30188498
5.008965 -4.0085716 0.20088969 0.76375854 -0.44671938 -0.051208317
1.6089261 -3.8744941 4.585382 -0.19906679 -0.47983864 0.81217158
-4.4889112 3.6586146 3.9203215 -0.28666496 0.44937459 0.70744449
4.2608995 2.9735231 4.0445619 0.57403058 0.29142496 0.4949711
-2.3825836 2.8375349 2.1877923 -0.46619716 0.66244638 -0.45447257
0.10463054 -2.0212042 1.5983447 -0.075530522 -0.80016387 -0.40723267
3.865891 -1.9952126 4.4994507 0.42679873 -0.38532835 0.56245428
-0.78005141 -2.021204 1.266802 -0.06202776 -0.78311604 -0.36305878
-3.3090236 -3.7616107 0.1216362 -0.4828437 -0.4828437 0.56378102
1.3126727 -5.3795948 4.0921512 0.33537257 -0.84151435 -0.29262388
-5.3723836 4.2262602 2.7790251 -0.55927193 0.55965519 -0.59849131
3.3072722 -5.2472324 4.0142698 0.62405533 -0.66654551 -0.012593001
-1.7377332 -3.9554324 2.8950481 0.54591727 0.52833813 -0.63706237
-4.9557443 -3.0282867 0.49816591 -0.42349041 -0.42349035 0.75984979
2.9508224 -4.6446276 5.553894 0.092403188 -0.537462 0.76993924
5.1090655 0.10848922 0.10660229 0.68462956 0.049263343 0.10001182
-0.24875402 0.069521353 5.6179438 0.080737472 -0.34184298 0.78672618
-2.431561 -4.0161409 2.8544502 0.097546518 0.085753173 -0.96870577
0.562011 -1.4758878 3.6441996 -0.3107982 -0.42887661 0.8330431
-2.3325145 -0.81646419 0.49816588 0.25555515 0.47893289 0.67023987
5.008965 0.87699723 0.047628291 0.99691725 -0.0043059494 -0.0088193147
-2.0228913 4.7523789 2.8693929 0.26824901 0.39137337 -0.77406168
-4.546906 0.22716078 0.61539596 -0.53476906 -0.23550886 0.62785763
2.6056421 -4.869988 1.4817952 0.043744251 -0.7867772 -0.48119935
-4.104229 0.46656471 5.1197262 -0.51815927 -0.3108567 0.74666786
5.008965 -3.1932917 1.4147414 0.59585923 -0.2370704 -0.33564132
5.0089622 3.719131 0.87258697 0.60757464 0.41057372 -0.22236238
1.8774009 -2.1603844 4.8736567 -0.12747334 -0.5323987 0.80980814
-1.3143555 3.0941002 2.7079351 4.5570309e-07 1 1.6358933e-07
-3.9462225 2.7458754 0.61539596 -0.4663226 0.43290487 0.70904392
2.0999639 3.9322717 5.1166191 0.10665113 0.48294687 0.84230649
-4.7932262 -1.0638579 0.17296955 -0.055806082 0.33126917 0.76643449
3.2098501 -4.8699884 1.3665061 -0.18248171 -0.77142125 -0.41181493
-1.0904609 -1.5902543 3.4981534 -0.0020122044 -0.84419698 0.50524586
-5.1719532 3.8267555 1.0222307 -0.80838275 0.462605 0
3.0203466 -5.2054691 3.7538888 -0.094790742 -0.64000762 -0.70135051
2.7968316 0.70151961 5.7313519 0.027262807 0.64969242 0.73660046
2.7729712 1.7321718 5.7591343 0.020806521 0.63047051 0.7602821
3.0311723 -3.7062583 5.4613061 0.12055104 -0.53569895 0.7426039
5.1090655 -0.65514755 0.26440626 0.65135646 -0.094335213 0.2480599
2.312922 4.4739494 2.0276864 -0.40124667 0.63404131 -0.21839949
5.008965 2.0660946 3.3473783 0.76915342 -0.17656271 -0.55986392
-2.2857449 3.16219 0.33604556 0.2709747 -0.29944533 0.57735038
-3.4109178 2.8375354 1.4703321 -0.14973608 0.81139922 -0.34042597
-3.9153066 4.1688385 0.49816588 -0.16216311 0.45504397 0.5773502
2.4615617 1.907706 0.61539596 0.088905111 0.31407589 0.84164816
0.32838821 -4.0615473 1.8568871 -0.5570842 -0.38394332 -0.47318625
-5.1679177 2.8375354 0.65695775 -0.59664965 0.69381458 -0.15493383
-4.7733006 -0.80415392 0.33604556 0.0024276152 0.51818395 0.72925359
2.3346052 3.5728226 5.3707061 0.070694916 0.52979863 0.82312721
1.9078739 -0.74206138 0.6153959 -0.049425784 -0.049425688 0.96906191
-4.1971335 -1.7012751 1.6191349 -0.62649971 -0.5056513 0.35865948
2.7747636 -0.090065718 0.61539596 0.048945516 0.088675521 0.92678624
2.1095638 0.28934902 5.898118 0.028722726 -0.28315711 0.81056857
-1.7642858 3.0941002 4.4567289 0.23175003 0.88382363 -0.084909998
0.32838824 -3.322845 2.6733892 -0.55770385 -0.17525613 -0.68125373
-3.4372466 -2.2312014 0.17296955 -0.010955893 -0.16254322 0.85279959
5.008965 -3.6149917 1.0834734 0.5743075 -0.36110029 -0.2761223
-1.3273931 3.0941005 0.90559566 -0.17729673 0.73965734 -0.29473242
-5.3381004 1.2792194 4.1043305 -0.6751765 0.036047854 -0.57699656
1.2420114 -0.18739222 5.2895184 -0.086729653 -0.64583564 0.72031116
3.8948207 0.95375025 5.3404431 0.32920799 0.37736014 0.68641979
5.2341633 0.58280188 5.8254476 0.58070976 0.019598484 0.78633487
-5.2628593 -2.2142937 1.7991217 -0.27336848 -0.35623398 0.78249508
0.3244099 2.6692429 0.61539596 -0.28119344 0.21880364 0.91096759
-5.1719532 3.9737988 1.0001781 -0.77529931 0.54247534 0
5.0131531 2.0579183 0.85925758 0.45879596 0.2591939 -0.60399473
-5.7210093 -3.7160447 2.8564224 -0.19218516 -0.061148278 -0.88083094
0.07795807 4.34758 2.8187709 -0.58760893 0.6186024 -0.36497593
1.5450976 -5.2054687 2.3355279 0.074790932 -0.75607932 -0.60649741
-4.2008882 -1.3429577 2.7793195 -0.48047918 -0.48032448 -0.69240743
0.18908352 -3.5871878 2.2924454 0.061914995 0.53017932 0.39457282
-4.4685016 2.9495361 0.5769943 -0.50689197 0.50689423 0.63449967
-4.1394286 3.8133171 0.17296955 -0.26298267 0.15032989 0.57735032
3.8074536 -4.8699884 1.3000243 -0.42768097 -0.71105152 -0.3517437
-3.986047 -3.3691382 0.49816591 -0.35222697 -0.35222664 0.84437823
3.9541497 -1.8927721 4.3977489 0.45931482 -0.36813956 0.54441988
2.602891 1.5513595 0.61539596 0.10920842 0.258356 0.85827494
-2.3624272 -3.8958368 0.24540463 0.069729567 -0.64534855 0.27479559
-5.0020638 3.2379389 0.2918691 0.70710671 0.67039406 0
2.1185422 -5.1242404 3.5358291 -0.71572864 -0.30271038 -0.35553417
-0.41343504 2.83231 5.2625418 0.17596166 0.55101228 0.77588999
-0.75262952 -1.8140389 0.49816588 0.40485418 0.18245253 0.72436333
0.34165186 -1.1001251 0.1928542 0.68476826 0.42608628 0.099395424
-5.5075908 2.8668599 2.1387076 -0.59843713 0.426981 -0.123123
1.152809 -3.773066 4.0957642 -0.32744208 -0.44027355 0.77582705
0.97070277 3.4933476 0.61539596 -0.24144159 0.3790198 0.76626563
-2.9817476 3.0065904 1.1867439 0.3240138 0.7947607 0.22347365
-1.0583088 -3.5836954 0.99231923 0.53521883 0.64271426 0.06052728
1.9564114 4.4198074 1.8616273 -0.70662057 0.45526901 -0.28574291
-1.1136807 3.1664121 2.234283 -0.4116987 0.61608028 -0.33212027
4.664782 -1.9504786 3.5788798 0.72264308 -0.21524043 0.4106136
-5.1719542 -3.0686855 1.0399776 -0.83275044 -0.40377629 0
0.48644078 -2.1390979 3.369293 -0.39226082 -0.38947624 0.81862074
-2.9517109 -2.1064286 1.4406354 -0.27098268 -0.57735038 -0.1173414
-5.3139825 -3.4621975 0.16927642 -0.69256783 -0.69256783 0.032424029
-3.3616085 -3.3299367 2.7779236 -0.404809 -0.40436721 -0.78224969
-1.0668669 3.0941005 0.33178154 -0.097858228 0.8909899 -0.10798033
-4.2025447 2.2858145 0.61539596 -0.51139069 0.40247527 0.65558743
4.4325929 -2.8920913 3.8464341 0.63825732 -0.24941725 0.46674025
-0.66353989 3.1664119 3.1231184 0.19990912 0.64559066 -0.14526591
5.008965 0.56420308 4.0428758 0.69934487 -0.019185757 -0.58388156
4.9951468 -0.86029565 4.3870873 0.70016116 -0.11729947 0.54360831
-5.4161201 -3.8401699 2.7792225 -0.55854434 -0.55839819 -0.59968531
-4.1507254 -1.7976716 2.0325797 -0.46220255 -0.64859676 0.49370214
-3.5957322 -0.55041832 4.8261838 -0.30762696 -0.3032338 0.76649427
-0.44059509 -3.146667 0.17296955 0.45307785 -0.26120001 0.72475511
-1.0914773 -2.2179947 2.7760966 -0.11576068 -0.55181348 -0.78259361
3.6120973 -5.2054691 2.1819549 -0.14169487 -0.79988682 -0.51649845
-0.76898885 3.0941005 3.9190204 3.8647499e-07 1 1.1410662e-07
-4.4702134 -2.9069884 3.1517265 -0.30517542 -0.51369244 0.70353508
-0.27966815 2.5904133 0.61539602 -0.36432147 0.27643815 0.8300308
-3.0513775 -1.4844222 0.17296955 0.048918199 0.040538523 0.77719527
4.9624023 -1.242831 1.6568867 0.33287334 0.63229513 -0.001180321
-0.52784491 3.0941002 1.606169 7.7926154e-07 1 2.7455539e-07
0.24221785 -1.638265 0.37030745 -0.46304458 -0.46304363 0.54429317
-0.099146307 0.22343816 5.8145189 0.031696822 -0.1456534 0.82842076
2.7756364 0.21103185 0.61539596 0.0802048 0.10446345 0.91846031
-5.0188451 -1.904599 1.6150888 0.58462596 0.64765471 -0.014972702
-3.0152311 4.1683979 3.4796872 0.18785059 0.5388912 0.54954398
-0.026512206 3.0941002 1.9036136 -0.20684402 0.93450803 -0.20684429
-4.067555 0.93375868 5.3814831 -0.39797774 -0.47538334 0.76060838
-4.6403556 2.2876892 0.61539596 -0.53932059 0.40741074 0.62245882
5.0609341 0.11007509 1.2687855 0.57735038 0.50481141 -0.25331587
-3.506407 3.0583105 2.7785547 -0.41802537 0.41849151 -0.76605207
3.8542986 3.392055 4.5133047 0.424595 0.36628878 0.5814842
-0.099502847 -0.53509408 0.61539596 -0.31815502 -0.25841439 0.88479239
-3.5037122 -1.8947743 0.49816585 -0.021159779 -0.089292876 0.82552898
5.0089645 1.5957606 4.1882844 0.70050329 -0.1262309 -0.65547061
4.4124198 -3.354316 3.8695745 0.6187582 -0.27934134 0.47283742
0.99620628 -5.2759104 0.24058445 0.65980566 -0.64810795 0.22571078
-3.8047674 -3.3227367 2.7782764 -0.4255228 -0.42510962 -0.75765681
2.6169491 3.3407648 5.6765041 0.027889691 0.58147001 0.80375588
-4.1652565 2.8375359 1.9632417 -0.034329593 0.77581435 -0.50227356
1.6403456 -1.755178 4.6165934 -0.1656411 -0.51357627 0.81314933
-3.660912 -0.13232514 0.61539596 -0.49161607 -0.30531552 0.67904311
5.0089645 0.7496568 1.7957853 0.87025028 -0.042251702 -0.27539533
5.0089645 -0.28669852 2.2115321 0.84212381 0.0690464 -0.34733027
3.613713 4.5062838 0.2546882 0.3364751 0.78468263 0.23894262
2.4494715 2.4238379 0.61539602 0.092829376 0.38728943 0.81007487
4.7463932 4.4035935 3.2970545 -0.58118176 0.6348111 -0.36841667
-2.738708 2.8375325 0.99239624 -0.40444377 0.76695144 -0.20615259
-5.4397688 2.811502 1.7200129 0.72798586 -0.19172485 0.053107396
-4.086864 -0.87661088 1.2939975 -0.37201703 0.71552479 0.31476685
5.0089607 3.5820563 2.4600217 0.43329176 0.25340676 -0.55153179
-3.5865095 3.0065882 1.7876679 -0.096519999 0.7696265 0.4821085
5.008965 1.2313502 3.4583099 0.75105071 -0.089556634 -0.53424931
-0.9751783 3.0941002 1.7861865 7.4134971e-07 1 2.5999165e-07
4.3171482 -2.7063527 3.9794617 0.59517515 -0.27715394 0.48619926
5.008965 -5.0426517 2.033344 0.20362692 -0.67167866 -0.51815921
2.9712398 -2.084903 0.61539602 -0.15369041 0.0056595961 0.9625721
-1.0399024 -3.6584015 2.2799644 0.52577853 0.35073322 0.404387
4.8815408 2.2904458 0.8930105 0.13223965 0.67738646 -0.65068001
0.23605129 -3.634774 0.1660046 0.70024002 -0.70023972 0.015313694
-1.282917 -1.5851822 4.5916686 0.50982881 -0.64759779 -0.40368772
-4.020401 2.6390109 4.3278961 -0.12161759 0.46966171 0.80291939
-4.6490822 -3.6701133 2.7787249 -0.50331748 -0.50306714 -0.66526759
-1.7793225 -1.5197687 0.17296955 0.24586844 0.14941305 0.73666376
3.9635034 -5.3180351 4.2257562 -0.31241891 -0.72079849 -0.4560205
-4.706686 -1.5504588 0.33604556 -0.13584919 0.031342551 0.82272065
-2.1887217 3.2511725 3.5225835 0.34147465 0.49279118 0.76193351
0.80679548 -2.8468568 3.717958 -0.35467547 -0.41426358 0.80306679
3.2239552 4.4739494 2.5410404 0.40699896 0.67064184 0.013344765
4.9448175 -4.8196874 0.61539596 0.39919633 -0.42954242 0.63913196
5.0089655 -3.6131656 2.3529763 0.42908794 -0.27608564 -0.53437293
-3.7759545 3.0916586 0.49816588 -0.12079751 -0.34393802 0.5773502
-5.1514525 -0.45896563 1.3439505 -0.69424921 -0.057209451 -0.22455007
0.14230527 0.44769436 0.61539596 -0.31369346 -0.10709806 0.89008415
-3.7462926 1.2339317 5.1293602 -0.35364068 0.26452506 0.77977604
-3.9184587 -2.2568984 0.17296955 -0.08546792 -0.21250054 0.87139767
-3.4092054 2.026191 4.6787972 -0.01644934 0.52623713 0.82085872
-1.2565534 -3.7924674 1.6978751 -0.32053453 -0.22209483 0.86210972
2.8317194 4.4206524 5.5400281 -0.041316729 0.60654145 -0.75730485
-1.5856252 2.0395131 4.8672433 -0.24602741 0.55554134 0.73651457
5.008965 -3.9348972 2.0471051 0.36775005 -0.39847285 -0.49683142
-5.3158174 -2.0837412 0.17362486 -0.68412805 -0.68412805 0.053080045
2.349092 4.4035912 0.35262182 -0.18641765 0.7071048 -0.089858472
0.36042878 -1.5981486 0.11319334 0.62219298 0.13064012 0.37782478
-3.1140084 -2.7701716 0.17296955 0.038999125 -0.25385734 0.88679492
-4.4233465 -3.7308455 1.0514274 -0.40089762 -0.83394277 0
-3.8579953 2.3739686 4.4691782 -0.080937348 0.50635469 0.80005431
-1.4053788 3.0941005 1.2064881 -0.18222967 0.67551357 -0.39266014
4.9942856 -2.1638916 1.8013055 0.41198215 -0.61451578 0.20520006
5.1090655 0.73235524 0.14326344 0.67689955 0.13166562 0.13440648
1.1684759 3.3335707 4.1086345 -0.29829898 0.45386496 0.79099864
-4.2979937 3.2661009 4.0864077 -0.20653698 0.41649234 0.78321606
-1.6321403 4.6249504 2.917532 -0.52013457 -0.51303101 -0.61858046
-4.0474534 3.6522379 2.778985 -0.45906335 0.45938206 -0.71742451
1.0178311 -0.72152007 4.6074505 -0.17868407 -0.55364096 0.76988399
0.56576127 4.3194919 3.4685822 -0.56004715 0.58853126 0.44393313
3.897747 -3.312397 4.4627423 0.44086567 -0.35687485 0.57343793
1.4038918 -5.2823725 4.1922803 0.39615574 -0.75393379 -0.34016114
-2.5337176 1.9595045 4.1410089 -0.28288558 0.62623328 0.59384906
-5.1341429 -1.9510413 3.0967526 -0.58489847 -0.46484947 0.57157922
-5.3381009 2.2319248 3.24651 -0.82530063 -0.18999159 -0.39968866
-5.3381004 1.0261289 0.29632932 -0.98981416 0.032169234 -0.032170247
1.7571665 4.4035912 0.0077351318 -0.27737904 0.70710623 -0.0019704504
2.6830781 -5.276927 5.7473364 0.0052404632 -0.56779164 0.82092166
2.6798759 3.9860966 5.7448492 0.019952124 0.57662493 0.81232864
-4.9702077 4.0651083 0.49816585 -0.47530326 0.37810385 0.5773502
5.0465007 0.20415697 4.3296714 0.67563337 -0.26136768 0.074349612
-2.5875158 -2.7121677 0.17296955 0.1205277 -0.19248921 0.86394888
0.76646972 -1.0424832 0.6153959 -0.24105221 -0.24105172 0.90244615
4.1287408 -3.0679874 0.61539596 -0.2301442 0.077930644 0.87860048
4.3780146 -0.91503727 0.61539596 -0.0012661815 0.21675329 0.79578596
-5.3943558 -0.7620101 0.49816585 -0.30716386 0.52270293 0.67059171
0.33077958 -2.18455 0.6153959 -0.37638444 -0.37638369 0.80325693
-2.8742285 2.8611598 2.7793193 -0.22912945 0.62450248 -0.68003047
0.92883903 -5.2054687 3.5501249 0.17084247 -0.65562803 -0.63236696
-0.00063890964 -1.5851824 4.6304455 -0.51756585 -0.6432032 -0.4019725
-3.7909763 -1.663313 0.49816591 -0.061658815 -0.052407473 0.81412685
3.8007946 1.1749947 5.0500984 0.34271231 0.40895161 0.63673627
-4.0832176 2.1367993 4.2732491 -0.14281011 0.58995289 0.73091698
-4.5084052 -3.7308455 1.0641514 -0.43568993 -0.81953132 0
-5.4211607 1.705307 0.39006454 -0.62486148 0.23389268 0.36594951
-1.0880046 -3.428448 0.33604556 0.35481557 -0.27801663 0.84130734
0.32838911 3.7624717 0.092888735 -0.68343627 0.70710677 -0.023670651
-0.9997409 2.9823885 0.00033883119 0.7068525 -0.53071141 0.0011309756
